# 3D point list with one line of data per point:
#   POINT3D_ID, X, Y, Z, R, G, B, ERROR, TRACK[] as (IMAGE_ID, POINT2D_IDX)
# Number of points: 418, mean track length: 4.0886075949367084
42 58.41328162807639 33.02556186273403 44.783050747843554 25 25 29 0.60952093368011662 2 298 5 12 1 209
43 58.152349664759754 32.740228692712492 44.333327772954725 24 23 28 0.64920325704465232 2 297 1 210 6 248
427 43.857420623919772 -49.715303658407485 29.012030418229958 118 84 68 1.1671434638065863 4 661 12 528 3 551
45 56.522025113155578 34.334901102330782 43.498469181743772 7 7 14 1.4381232034884508 2 12 5 225 6 249 8 270 9 360 1 214 7 426
437 51.406217265054266 17.841602494630614 45.02661354296955 5 4 9 1.8269579016127619 12 463 4 655
46 53.513544544792666 13.106104448418774 45.143384286443407 6 9 24 1.2856778208643331 2 173 5 230 6 252 1 215 7 255
47 50.895468545031243 13.081338883851993 45.782701082909313 2 4 14 1.1919216698172781 2 181 5 232 6 411 7 258 1 219
447 46.397526306070752 14.59485926524766 45.571971427772702 12 12 17 2.1194167095594043 4 734 11 562 12 527 3 611
48 27.456534365400703 1.2098741624485838 4.3369535912886672 19 13 15 1.6457460253648695 2 311 1 229 5 386
49 26.011575788020906 -0.67475928748217329 2.6698964554540692 10 4 2 2.8877452951899278 2 33 5 387 1 234
441 32.652089569586273 -48.071153334821744 32.902597918567579 55 49 57 1.3642915393962876 4 667 8 767 12 503 3 589 11 571
50 25.716830008292398 5.8740047627181431 7.1650893025875098 136 141 154 0.43664466468174024 2 197 5 393 6 424 1 238 7 443
435 4.3809815729230461 4.2140241536240106 13.819096600649869 13 1 5 1.3684486222635435 4 688 12 480 3 573
52 24.609862310060699 5.7665112047478093 7.4854479343880804 12 15 27 0.32795894358753402 2 203 5 250 6 268 1 242
445 0.34509364664719955 4.5168026953392468 8.5658592971722616 74 70 75 1.4101131054317415 4 726 12 548 3 606
54 28.641277298101855 51.856835472392021 44.064421556484554 1 1 12 1.3765420142694214 2 215 7 288 8 320 1 251
55 28.257445551782915 55.460722713944151 43.003693112100414 5 5 11 1.5091871525702183 2 216 5 265 6 285 7 63 8 83 1 252 9 260
391 6.8828960843752984 4.3060548113427259 10.079951131477893 54 47 52 1.5061108409063344 4 567 12 277 3 396
56 28.742220377632741 60.13242669681518 44.23078866434571 1 1 7 0.88749618309879408 5 409 1 253 6 569
57 18.211135632593226 3.495818418234991 9.1860070180249611 63 65 76 1.2937549998344815 2 218 1 255 7 291
385 11.608241113704924 3.9054437612253157 8.3165169333992708 78 75 88 0.8700683088159813 4 463 9 277 11 244 12 351 3 379 7 100 8 346
58 16.196308309803388 1.366609366627263 8.0604082750015564 16 17 27 1.6609845238407728 2 337 5 271 1 256
59 22.750203474511377 50.801200875791757 41.061361698662743 87 87 94 1.0196184062855682 2 222 5 272 6 435 7 298 1 257
443 11.003100345672879 5.145525175439575 11.782401483432229 80 80 94 2.477250585958517 12 543 11 502 10 497
60 16.672199031338639 56.361050605740296 41.42689517769162 126 126 130 1.2594780493407325 2 226 5 281 6 446 7 466 8 502 9 499 1 261
61 16.659596965714776 56.245188691526977 41.270480234264397 127 128 133 1.3406441968047433 2 227 5 282 6 447 7 467 8 503 1 262
389 5.4932473349927875 -62.261524354615034 27.610148328823577 21 10 8 1.0463979685453897 4 360 11 366 3 391
62 16.262285782783096 55.719832111785131 41.334930518730623 10 10 15 1.1667595811955549 5 283 6 297 8 504 9 400 1 263 7 309
63 17.723812296718503 47.96005551760652 55.985650292237381 163 163 174 1.3527708600777579 7 313 8 347 10 292 1 265 5 95 6 106 11 348
463 48.236860533779648 -44.328953301356051 30.856654812506854 57 50 55 2.1484573330818511 4 770 11 614 3 648
65 15.84882448486756 -36.087036398668999 46.972064928288226 182 183 190 1.1875818070444648 7 321 1 268
457 54.922598084122434 -35.286861798563294 38.775888805596637 9 8 13 1.8300731917808415 4 756 9 707 11 599 12 566 3 638 8 839
66 11.238157772390133 51.187922641750262 51.169013500982899 3 4 11 1.676125522501102 2 242 7 329 8 139 1 269 10 304
67 8.0550363143754584 2.8095261105209732 8.0404941182114893 18 18 28 3.0823722833147329 6 125 1 273
68 9.5899219745123858 49.021438846881985 44.868968893809736 38 38 43 1.6935694148346512 2 244 1 274 5 302
461 10.095855357249627 4.7522227655745652 9.6554537139793339 40 37 48 1.8021992168457786 4 764 11 607 12 572 3 643 10 646
70 6.7427142437502585 1.6812042585259654 8.5047253166768293 25 24 35 1.0357202630652822 2 254 1 282 5 428
71 6.1795239963181299 2.3505586329123367 12.248012598362035 39 12 4 0.47525459100920414 2 356 1 287 5 430
471 19.391928844262068 -47.157990003236279 36.295116318115163 78 68 69 2.8509999204844449 9 742 10 690 3 663 4 786 8 877
72 5.1894087315382311 3.9331814503262068 10.55108429716387 23 2 1 0.77404252813515029 2 358 5 434 6 316 1 290 7 351 8 381
465 11.442586046419111 3.6860560508046443 9.052870364652291 98 95 107 1.8513990021627382 4 762 12 583 3 650
74 4.6084250572069196 1.3738761163118303 11.304582849352068 15 0 2 0.67209686740326358 2 258 5 148 1 293
75 57.932468384674983 1.2486446800782567 42.113097258939753 51 51 58 2.4586620848967566 2 293 6 1 1 333
459 22.260274884603049 -1.2871701151477393 4.1527179940516898 131 95 78 3.5897593490046034 4 758 11 604 12 569 3 641
76 57.369748560365764 2.2056123506837539 40.607617840690175 54 54 61 1.4720343560946576 2 396 9 354 1 334
77 57.782497879764001 1.3063329084918054 42.757387597403415 9 8 15 1.4909155170393475 2 163 5 374 7 422 8 267 9 214 1 335 11 188
469 46.472672807862992 -45.320155659361617 26.57610530529681 3 3 3 1.2110984426214448 4 784 12 591 3 657
78 56.575431885525411 32.290692251940854 46.149671448482039 46 45 52 1.660803955643015 2 401 5 478 6 535 7 529 8 568 9 463 1 340
79 56.450670864565566 33.028576433365281 45.959471352597369 4 4 13 2.33009420710074 2 172 5 228 6 250 7 427 8 463 9 362 10 359 1 342
479 6.0122695754830904 -57.573301575492849 32.29763097967291 80 53 36 1.2604358244120402 12 116 4 167
80 52.408693041775763 13.150185327488678 44.049201061733264 68 71 83 0.95570603283285593 2 175 5 23 1 344 6 22
801 24.690176384274139 5.2395251685212854 7.2029386626955318 22 23 35 1.1215009338603881 2 573 5 684 6 740 7 727 8 806 1 595 9 692 10 660 11 603 12 580
81 46.947117793479194 65.797609490925666 27.325948386005951 18 18 24 1.352039030886103 2 303 5 380 6 409 1 347
473 54.886986523274373 -33.937306621745613 39.610691447845795 105 104 131 1.4281589884558301 11 18 12 325 4 31 7 423 11 416 8 272
82 46.236487050349943 66.031914667338313 26.888521996456205 1 1 8 1.3313240429893092 2 305 5 382 6 410 1 348
83 44.433167424967849 60.093011944185783 27.544597431288214 47 47 55 1.273911075991677 2 306 5 383 6 412 7 430 8 465 1 349
467 36.71870615280806 -47.146323243711059 31.717675319436545 46 44 51 2.0126076908024539 4 778 9 725 10 676 12 592 3 653
84 44.433167424967849 60.093011944185783 27.544597431288214 47 47 55 1.273911075991677 2 307 5 384 6 413 7 431 8 466 1 350
805 17.147467927087948 47.300591915183894 55.442447208002029 153 153 158 1.5493731829257027 6 695 9 645 7 673 8 739
85 24.542385060798125 6.5675380892187976 8.2357319773356696 48 50 63 1.235259184845918 2 204 1 357 5 49
477 14.273924308136067 -38.629962498766545 46.19138690487064 189 186 193 0.75688241986815175 11 90 4 143
88 21.409343605179174 7.9728480540404796 9.3559897030181016 50 26 29 0.052200352746432109 2 330 1 364
809 26.595020283005571 1.3482614625131857 5.0339714902151087 119 88 91 0.93980843480166232 5 388 2 315 4 530 6 542 7 534 8 578 9 476 10 467 11 424 12 409 3 450
89 17.751601851868152 4.7610431201453771 9.6323919254948809 21 23 35 1.0663425971134204 2 335 5 505 1 368 6 573
90 17.654279568706322 0.37456985947140492 10.550519804411499 42 42 50 0.66348491303393153 2 336 5 268 1 369
91 17.200179007823298 55.697547223394906 41.102140605537237 13 15 25 1.1080159774784344 2 343 5 415 8 607 1 376
475 13.480811054692026 4.3952541793122117 8.8120868701030926 137 134 147 1.9243101971572103 11 78 4 124 9 98 12 74
92 16.680574845970106 51.576526212400069 51.765911220447975 6 6 13 1.4464372476070719 5 97 10 495 1 380
813 22.735484034282379 1.2471961859406997 6.6683127924699015 89 89 96 1.3451629825012186 5 401 6 431 2 324 7 283 4 448 8 488 9 381 10 267 11 330 12 230 3 244
94 14.71097024444027 -36.801234375766413 47.210172937971024 165 166 181 1.2690246826908245 9 292 1 383 5 423 7 472
95 14.440691753579218 -37.500322073112031 46.318769720417649 182 180 182 1.2026176396062707 2 89 5 424 7 473 11 246 1 384 4 142
495 8.0371953591842331 3.6226494858902658 9.0067842880161813 73 68 82 1.7634488160529413 10 663 11 608 12 573 4 765
96 7.4144894703860507 62.76579371787161 32.292149896838261 201 205 228 1.7290172684362404 2 351 5 523 6 586 7 574 1 389
97 5.5711112704085659 4.2006746298486979 10.837312925470597 167 121 70 0.49167330794960074 2 453 5 528 1 394
489 40.205704601096258 -49.455737207916897 30.151499731226185 113 91 83 0.57688044090164403 8 674 12 467 4 529
100 56.199553148273523 -0.1816584207216406 41.603132101719282 51 51 61 0.8156170815344661 2 397 1 441
493 9.9381059709100992 3.5769915052720194 8.9800807468916819 74 69 79 1.9823351594957275 12 554 4 742 11 590
102 58.09274267894159 43.773216029477531 46.191738082719318 85 91 109 1.9779681383268268 6 407 9 460 1 443
103 54.807312655261384 31.150644036099887 47.189780206056447 55 56 65 1.6664204391655619 2 473 5 558 6 628 7 530 1 444
503 30.21745600190927 55.60912920434901 40.596823564994921 58 59 66 0.54204974201179001 6 277 8 317
104 26.84992069222891 -1.5494911468680261 4.0480421170692447 186 158 124 1.7830606042796762 2 402 1 445
107 23.951634348623354 4.3050984795300486 7.5090865554584614 100 108 123 0.39876575155455679 2 416 5 570 1 451
491 14.679118700593975 5.0600794963117259 11.226357391704529 72 70 82 1.8141507526324487 12 429 11 441
108 22.852574244865554 4.4117069813042695 8.4222303173517012 91 99 116 1.435882492239448 2 485 1 453 5 620 6 718 7 730 8 811 9 694
109 21.778725721383069 3.4585217748211483 7.57699948668962 19 22 33 1.398437442779267 2 487 5 621 1 454
110 33.033881211828898 60.649863867716249 43.502123020520351 3 4 13 1.6929751811799061 2 422 5 622 6 559 1 455 5 404 7 616
111 21.209027770957324 7.5226667759628798 9.1802823303257561 52 28 30 1.2933412393375419 6 567 8 692 1 457
112 17.905645669874836 3.7707539597504502 9.1369136359273782 16 19 30 1.6079471573280439 2 430 5 502 6 572 7 621 8 696
113 16.855292107844637 55.122350120940908 42.024196453550502 112 111 105 1.2083173155527025 2 437 5 510 6 577 7 562 8 608 9 497 1 467
505 18.165007007132502 0.84587926698720672 10.098843166185384 29 28 41 0.32664962663995678 6 77 7 75 5 77
114 18.3174752576004 52.977472527641723 56.106468262409258 13 12 21 0.78876530089121766 2 499 5 580 6 652 1 468
115 17.167409789749442 53.694548199710624 56.004860043148255 115 115 120 1.5224236871296384 2 441 5 514 1 469 6 450
116 16.867737587808506 50.998643545834796 56.641400276649684 25 26 41 1.4069067655562286 2 442 5 515 1 470
509 8.1258113529324252 61.891923411813806 33.295979825922842 39 48 93 0.29848895568456768 6 130 7 333 5 119
118 10.042023053064273 55.665431318179245 48.844823422937147 1 1 5 1.9105775128101967 2 505 1 478 5 632
119 7.4909595382736107 3.3153665642925745 8.1895040016876166 103 101 113 1.0237277301123449 2 450 1 479 5 588 6 583 7 570 8 613 9 505
455 54.998916253087351 -36.395491565846243 36.008307246983804 74 74 89 2.3477700828117571 4 733 10 658 11 597 12 564 3 636
120 4.4864568086289012 4.5851155183224686 11.119380047668159 56 51 57 2.4836770671799933 5 597 6 663 1 487 7 485 2 558
121 4.9065877959175799 0.36635954096470535 13.64465654591263 52 50 55 1.9032197354504568 5 596 1 488 6 593 2 360
449 14.932094840413773 2.4576427345798701 8.3194304524397111 23 25 38 0.86722076775857249 4 712 12 571 3 620
122 0.71054909111864384 -0.7636992666345026 9.6080677631168676 59 58 63 1.6030476528122601 2 457 1 496 5 602 6 669 7 631 8 748
507 16.831707168683188 48.007366547424716 56.268166772490154 165 166 172 1.5943758842561775 7 318 8 352 5 99 11 352
124 56.966880608262279 3.6224504232910726 42.820178338584014 6 6 10 2.2135872717021563 6 530 1 504
125 56.839125182708173 33.916071014806022 45.677516428854823 58 58 73 1.6810746247080071 2 399 6 627 1 506 8 713
453 1.1338837098986989 9.3281458817150824 11.031126592390011 46 44 49 1.7632799767378255 12 563 3 633 11 594
126 51.813144507320267 12.92975194723777 44.638579192121547 16 19 30 1.9049838341209364 2 474 5 559 6 629 1 507
127 47.35923504029742 13.009381659817063 46.260063882233126 64 66 81 1.9643026459087289 6 631 7 652 1 509
128 27.888520682480628 -2.2476330311387667 6.5700002575770915 201 178 145 0.71976770707534765 2 479 5 562 6 541
785 24.537929587242935 8.7424240068448409 8.197976322603175 132 135 151 0.8248610581978264 2 322 5 495 6 551 7 541 8 684 1 358 9 560 10 479
314 41.236572931917017 -48.180791131657358 29.157382178182559 23 15 15 2.9328274567176087 10 23 11 206 3 30
130 30.137241568677556 55.954340058941796 42.04388369822226 61 62 70 1.5801493215303926 2 488 5 573 6 687 7 657 8 725 9 635 1 515
260 22.396445564454027 8.6802169188588145 8.8824846974293887 57 55 72 2.1710729474256549 6 643 7 617 8 689 2 420
131 30.137241568677556 55.954340058941796 42.04388369822226 61 62 70 1.5801493215303926 2 489 5 574 6 688 7 658 8 726 9 636 1 516
132 30.36420329197805 62.616503257764101 53.637181638829652 35 34 44 2.8100604612605289 2 493 1 518 5 73
789 53.125757858918782 13.503732309064624 38.814511447472675 160 163 172 1.7748146351464396 6 533 1 442 7 528 8 567 9 464
133 27.049983555406868 63.172135589836344 43.815977203155576 12 13 24 2.2566226135220724 2 543 5 624 6 648 7 661 8 728 1 519
134 26.727768076016932 55.863025963624338 44.528931316195354 13 13 22 2.1140386370957081 2 427 6 571 1 520
312 28.330983225037684 1.5607422788972238 5.7257880015785254 243 219 216 0.94735359771033545 4 434 12 211 3 28
135 18.200722827807645 0.32526662442238813 11.03467826984326 163 162 175 0.28002717095922242 2 496 5 503 1 522
136 17.322375418292069 52.333259726534223 56.724228829780664 127 126 133 0.84768929002803828 2 500 5 581 6 653 7 670 1 524 9 604
137 17.293443866228468 52.262532671177766 56.550181300051449 127 126 133 0.71325518539418209 5 582 6 654 1 525 7 671 9 605
138 16.398639203595433 53.619662827098608 57.387575811598168 12 11 19 0.93503620154053235 2 501 5 583 1 526
139 8.344275028572719 62.720875420080596 35.214594613770942 207 212 227 1.5268530360983943 2 506 5 587 6 656 7 677 1 527
140 7.0699585815035597 65.277536147557683 31.983201163158789 60 59 74 1.1982539734028368 2 507 5 589 6 658 1 528
262 26.371260961722538 62.965578868169743 45.138195942843531 34 35 45 1.7062922457497813 5 576 6 690 7 662 2 428
141 7.7849109212576666 0.8333965344498101 15.165143210752406 108 106 112 1.8068264148290289 2 509 5 590 6 657
142 7.9558031208965083 1.0396165855968329 15.825739261918196 101 100 106 2.3189722496307557 2 510 5 591 1 533
143 5.14974530379504 4.7848479464246143 11.291860778234355 49 17 15 1.3316550481095377 2 455 5 594 6 660 7 628 1 536 9 574 8 703
144 4.2543833353791864 0.77756828412362045 13.639811439706797 12 1 4 0.74716523586320938 2 515 5 598 1 539 6 664
266 8.730786763520058 56.759116821364849 41.518629494175627 59 58 63 1.3550227803990815 6 584 7 626 2 449
145 2.2833043867776737 5.6447045029797902 12.302708101621128 86 84 91 1.9149131714634806 2 518 6 735 1 543 5 672 7 742
146 55.338110941811244 3.1092245672104051 43.578888532258567 8 7 13 1.8915880871731978 2 532 5 556 6 677 7 645 8 714 9 589 10 565 11 531 1 548 12 491
276 23.31871767318836 3.5480841645667964 7.8667966808035086 28 32 44 1.1398892493071242 5 619 7 655 2 540 8 722
147 55.271112853809477 3.0715190635824166 43.375087734177555 8 8 13 1.8855615385706612 2 533 5 557 6 678 7 646 8 715 9 590 1 549 3 547 4 652
270 27.908641148895956 61.215816819369387 48.410220507145794 10 10 21 1.5764079812234626 5 623 2 495
149 53.154116981795603 12.78703504392589 42.454490612086929 74 76 95 2.4411745474133881 5 611 6 679 7 648 8 670 1 551 9 593
150 55.187658785325091 31.649692709636916 46.213298162650872 8 7 16 2.046111414481067 2 535 5 612 6 680 7 649 8 716 9 591 10 601 1 552 7 692
264 22.426167638536917 51.827223018682631 41.117435004980024 6 6 12 0.93241226559267387 6 649 7 623 2 432
151 49.752335910965996 13.03299310884549 46.19487924175305 71 70 90 1.4124989397094088 7 651 1 553
152 26.16362190361103 2.1408585427953235 5.2141137029108293 160 168 189 1.1089268360178723 2 570 5 651 1 554
274 8.0111191102650068 2.8207454734000081 8.5348341940073773 26 28 39 0.65983737005760923 5 586 2 504 7 624
153 24.65634647109059 -1.1648917767299292 3.3036931213872478 15 5 9 1.603325383841256 2 481 1 555
154 22.796004315574983 -1.8808118660910167 4.6887852837479622 41 43 56 1.0315166244005782 2 483 5 496
284 16.050926103130646 4.0442978054373437 9.4524708161365609 21 24 35 0.76156222734007795 5 659 6 720 2 579
155 36.719053508289761 62.533115163826331 51.918954753123359 38 39 50 1.5522512620729909 2 486 1 557 5 571 6 558
156 26.829218671467164 58.242284323889145 44.207068465787223 9 11 20 1.8385089437998425 6 719 1 558
157 23.787245108082285 51.629715364598994 40.972178168252732 4 5 11 0.87178324281459307 2 544 5 656 1 559
158 16.15932318035459 2.247091165288813 9.3147472790382597 22 23 33 1.08967656567201 2 578 5 658 1 560
159 17.5282933109719 48.771668922880608 58.116063787505354 160 160 171 0.34777265714713063 2 548 5 629 1 563
160 17.5282933109719 48.771668922880608 58.116063787505354 160 160 171 0.34777265714713063 2 549 5 628 1 564
817 17.243446848540973 47.589156573343722 56.150860173691633 146 146 154 1.6127632331956072 6 694 7 672 9 646 8 738 10 619 11 575
162 10.075929542564072 60.012672575994408 43.354008888722639 2 1 6 1.4062661538914834 2 552 5 668 6 729 1 567 2 587
292 2.9836258263301318 2.5689312575783418 13.131938528358299 67 66 73 0.65732808671102327 6 769 5 709
164 6.9863291300000689 1.3884210601207678 8.5981531111075871 23 22 31 1.6921743779204024 2 554 1 569 5 634
821 24.517974087151117 1.196667468089633 6.8839129611724248 116 114 118 0.62678354102562672 6 425 5 397 7 445 8 478 10 383 11 319
165 5.6897461399859166 3.6582523721908302 10.445919229246625 147 100 51 0.58283724806370463 2 555 1 570
166 4.9010846768651559 3.9257784830774147 11.120466929829332 32 8 10 1.9694219828486379 2 556 7 716 1 571 5 636
167 5.0805194413724672 1.5811935902999081 12.027857972329553 28 6 7 1.6351799365026285 2 557 5 635 1 572 6 661
168 2.5711761831878581 0.52374780469652182 12.749920250299535 65 62 66 1.5509967904250945 2 560 1 582 5 530
825 5.900675336092867 1.5005638704424451 11.777160691769954 196 150 92 1.0165999512335242 11 507 12 479 3 530 9 611 10 549 6 733 8 745 7 683 5 670
169 2.204265578455177 0.28428334228227115 14.489114577604566 20 3 5 0.75938364342372777 2 561 5 638 1 583 6 668
170 57.158122004050469 33.924644983711502 43.545203577517924 5 5 10 1.3009398656456193 2 566 5 645 6 708 7 691 8 758 1 586
171 44.894170456293701 62.341141343272632 31.078277840241775 9 9 13 1.4003029254045214 2 568 5 646 6 681 1 589 7 650
172 26.642985057935586 0.14595296985250242 3.4653936049583169 12 9 8 2.2724500313286566 2 596 1 590 5 679
829 27.010579388612641 2.4609482900814803 5.8662458632728454 222 217 229 1.3317957215892835 9 237 10 375 11 310 8 471 5 389
294 25.114091670205244 3.0463574202926793 6.686726755431823 11 13 25 0.89455339829663749 5 682 6 757 2 610
173 26.026970862273604 -1.1195599329935353 2.9159490761766254 212 174 165 2.4459915238443775 2 569 5 649 1 591
174 39.697508865651699 64.557660251683117 29.970432246198715 24 25 34 1.8119172568780555 2 597 5 648 6 738 7 722 1 592
176 23.541957306634778 8.12038649745325 8.372772485901514 140 108 96 1.2951243151068164 2 574 5 654 6 716 7 697 8 770 1 596
298 56.652209948143181 9.3302251902648532 47.032139055697911 93 98 117 1.7354638074187534 5 724 2 631 6 784
177 29.2860634329855 58.589494321541821 43.165607692547468 1 2 6 2.0920267987000072 2 576 5 688 6 745 7 740 8 831 1 597
178 17.431666643377721 47.486433679233357 57.223282006664824 94 93 102 0.25468117355093994 5 693 6 747 1 598
308 56.030832728824535 -36.167177537891035 38.098545211957202 73 71 84 0.43082863024474355 4 27 8 5 11 16 3 16
179 17.431666643377721 47.486433679233357 57.223282006664824 94 93 102 0.25468117355093994 5 692 6 748 1 599
180 15.283445624186992 -36.38657361740664 47.12211223987368 170 172 181 1.6266495147980313 2 582 5 664 7 708 9 648 11 542 1 600 3 562 12 510
773 6.9445394084102867 1.484099212316758 9.3174572031080913 33 35 48 1.6547622628555425 10 584 9 610 8 744 7 681
302 52.504569547627234 13.508862554585003 38.719227343841467 3 2 7 2.2594141628461442 12 324 3 4
181 15.287537120345684 -36.39159380161103 47.06621322773168 169 171 180 1.4267999933873656 2 581 5 663 7 707 11 541 1 601 3 561 12 509
296 36.828137972772232 66.997432209053585 29.786474180385316 55 61 73 0.68604484770678043 6 779 2 627
183 15.142161140481038 -38.124375727433716 47.826650343544195 170 168 172 2.2582258273051652 2 585 5 666 6 728 1 603
777 55.49032367400909 3.9662043791411086 43.502188640010019 105 105 123 2.0923439037751694 2 168 5 11 6 13 7 250 8 279 9 225 10 241 11 199 1 206 3 213 4 251 12 201
306 57.426899518591682 -32.089537690158537 35.845491545845022 29 28 38 1.8086765398979687 4 18 10 0 11 7 12 7 3 10
185 40.817138230754871 64.49830318930529 33.469010448021827 23 25 34 2.1794948616959018 2 598 5 680 6 739 7 723 1 613
186 35.75576331893857 62.79828262856438 47.010624648285614 42 44 55 0.9643676946736166 2 600 5 687 6 743 1 615 7 729 8 828
316 27.470835531225518 2.1760104579930437 6.0486853491992365 65 36 33 0.89740896051946528 4 45 12 34 3 34
187 15.158317785381717 3.3497328613189676 9.0701230438744282 27 29 40 1.3118314745757362 5 705 6 760 1 616
188 5.6974710415178622 2.8221176311817215 11.726036660630692 8 3 4 1.9901973432812721 2 601 5 696 1 622
310 53.553739824095523 -34.688917001367912 39.295676048213743 111 109 127 0.99536143860980009 12 22 3 20
189 5.0906437715741939 1.1579602081623863 13.84242233005911 19 3 5 1.7654248136311277 2 602 1 623
190 1.491793786441131 1.2290037929923954 12.327994188616795 36 10 12 0.63198068189522549 2 605 5 698 1 624
304 56.193556539661202 3.8095335252122573 43.518521827576095 8 5 17 2.1542579730787343 6 12 10 11 11 14 3 7
191 55.609114151126654 -1.2435023660868829 41.83889065185307 48 49 63 2.1729642925446524 5 700 8 841 1 627
193 55.989477688269872 5.1853010564960913 42.771738529779363 107 110 133 2.2944105252814522 6 754 8 840 10 600 11 581 12 549
194 25.404595220560047 3.4028248455457937 7.5621230466098766 13 14 25 0.24031193517749525 2 609 1 632 5 683
324 20.049529494142167 4.6745670308604907 9.1055620858326787 19 22 34 1.4296163379868776 11 62 12 240 3 79
195 31.810658930629295 58.836786328484145 42.702608154311804 2 3 7 1.1316611482343728 2 611 5 704 1 633
196 56.183439874062401 2.2100053643168236 43.369018413072112 9 8 12 2.2084532096605178 2 615 5 710 6 762 7 746 8 842 9 708 11 612 1 637 12 577
853 13.368218731166587 -33.000317861890281 48.739364944517497 41 40 46 2.0319037636123678 5 723 7 766 9 735 10 684 11 630 2 629 6 777
382 15.670347496817516 4.9028950930749877 9.650765979033606 60 59 73 0.89094278312365449 9 274 11 340 3 373 10 398
197 56.48148089792312 31.173918540457205 46.487512108954007 6 5 11 1.196684061241865 5 711 6 763 7 747 1 638
198 21.674774054840576 1.8903165620701998 8.1365355635833083 22 21 30 1.1948091001600849 2 621 5 718 6 775
376 21.914484725923938 8.3874959221888883 8.8649927028298183 127 101 93 0.090172310806989689 11 231 12 341 3 361
199 30.48353527966735 53.603516377648724 43.31121379243524 2 3 10 1.4772024968146045 2 616 5 715 6 773 7 761 8 859 1 642 9 728
200 23.362510990042054 59.65837482957528 42.226829714256191 8 10 16 1.7594712157226202 5 721 1 645
857 7.0534032147795136 2.8420793881778526 8.8084604239595006 11 10 17 1.3860155430197689 2 512 5 633 1 568 7 678 8 743 9 572 12 361 3 393 10 547 11 454
322 31.537758319297229 -56.003541720543062 28.526563411656184 119 99 92 0.72688938076320919 4 77 11 49 3 68
201 45.408061386356223 65.426182999659659 29.927329066133641 4 3 7 2.6987670343351851 2 632 5 726 1 648 6 785
332 10.881098189185611 4.4386092339205838 8.7791309569978555 55 51 63 0.39563937091255036 4 145 11 89 12 88 3 120
203 54.751368834256134 8.5229199237044444 44.614501891869359 90 91 108 1.123972094784599 7 776 1 650
204 54.948267231256949 41.600611208361215 48.523085554271276 97 102 117 1.82786253472465 2 633 5 727 1 651
205 34.348448837632361 64.023785307838622 37.038865852157393 52 53 68 0.98920589452316077 2 635 1 655
206 17.176106690049487 57.099308845379809 48.760267437875576 11 10 15 1.035463408432983 2 637 5 730 1 656 6 795
320 23.909092854732389 4.6556507262383526 7.735541365829893 54 57 70 0.90633383579484306 10 42 11 43 12 226 3 59
208 56.287337551147317 4.1777637589916363 43.396459594400717 95 96 112 2.1687906264553396 5 8 9 224 12 8 2 9 3 6
330 13.217922597403128 3.9185741287313678 8.5489959742768118 82 80 96 1.2531343532511345 4 127 8 110 10 81 12 75 3 110 7 89
209 54.442544466780021 1.3701761481341674 43.258531732887292 70 72 88 1.6758852233877566 5 222 9 231 4 258
210 56.404144620173021 34.140879310050096 43.14359773617857 6 6 16 0.53530736847803662 5 226 8 271 2 13
340 5.0019480899539674 4.4496004073588846 10.936628993200275 67 24 26 0.84511875238891254 4 194 10 131 12 126 3 147 11 122
549 38.697851426875538 62.838949199188974 46.837037650332775 42 42 52 0.17403163366730767 6 741 7 726
211 51.897730256191281 17.776824151368967 39.720280528423729 39 38 53 2.3654745534752029 10 14 2 14 8 20
212 55.904397831645802 31.82177655377841 46.060761258177052 7 6 13 2.4214373327201253 5 19 7 254 8 281 9 226 2 15
213 56.102668827613961 32.861393911916892 46.285253369765215 4 4 13 2.1137532438307507 7 11 8 18 10 8 2 16 11 189
328 15.866818012075834 4.2962961829951656 9.3881549432622826 19 22 32 2.2302950360898381 11 75 3 98 4 111
216 23.040321595600663 1.2550387243840462 6.573061202148601 19 17 22 0.75598669981382771 5 50 7 50 2 50
338 6.5259044452589743 -53.765414881433131 32.927884955383142 77 47 35 0.279096421014984 12 112 3 135
348 53.40761424580792 -36.305666241268653 37.651511324496759 99 102 123 2.357057070736793 4 33 9 465 10 365 11 201 12 204 3 220
219 35.668384120879033 63.609480358914752 44.510412329913137 51 53 65 1.9695825360023729 7 47 2 53 8 68
220 31.348933732802333 58.49471096909194 44.532595972823977 52 53 61 0.23434300969582833 5 65 2 59
342 2.4896785285109355 3.6366969195931924 12.195893240434302 113 105 111 0.22175521765243877 7 363 3 165
221 11.087885245454988 3.9568661321874612 8.5092288601788884 59 57 68 1.0203297719196485 5 286 6 451 2 81 7 468
222 14.295935653524012 -36.934198562438205 45.73318204747747 189 187 192 1.396546868292261 9 293 10 96 12 93 6 300
336 6.929201182386449 -53.934442727713481 32.916881001422489 164 135 105 0.84263538115871273 4 160 3 133 12 270
223 8.3514585019174561 61.788178299765093 37.009164370836899 3 6 11 0.09827822927021683 7 336 2 99
224 7.848092640164845 62.477526975088786 32.691583673243457 43 55 85 1.234142378433513 5 125 7 130 2 102
282 3.1048741928623733 0.50750852771165555 14.19335320113461 18 3 2 0.27553238758695997 5 637 6 665 2 559
225 7.3715174027304826 52.794566972304885 30.040286028495643 14 14 22 0.36138724633041985 5 131 2 107
226 55.390249510460094 32.970421612475846 46.879675143622364 70 72 81 1.9253921069783966 9 466 2 174 11 412
356 22.376367868149256 8.2871172462305687 8.5203627400030761 104 75 68 0.40191470450496058 4 452 10 268 11 228 12 235 3 247
227 56.200442562484895 60.960543082220404 44.589043420980822 46 45 49 1.3373386216059044 5 22 7 428 2 179 8 277
228 44.284125104599411 62.635047816108276 29.621418610700449 2 3 7 1.4116026174401395 5 236 6 415 2 184
286 15.588583876813955 -37.359956942785971 49.578357401176298 173 177 195 1.5294679603787176 8 783 9 647 10 581
229 44.284125104599411 62.635047816108276 29.621418610700449 2 3 7 1.4116026174401395 5 235 6 414 2 185
230 26.031554524929554 3.0347681536939599 6.3905702897393271 53 54 72 0.98346269322268209 7 269 2 193 10 378
231 25.140034847670375 -1.187153102848407 4.5448473898341648 153 126 73 1.9284283159377547 6 259 2 194 5 391
354 23.915592970601644 -0.42403664104746175 6.9209294323272585 50 53 63 1.3204123974004442 10 261 12 227 3 239
233 14.891220189654613 57.558919668705322 42.464095138489036 29 31 36 1.1842121803678927 5 285 7 469 2 230
234 11.075275472750301 1.0606449621555032 8.5369721846885795 76 78 89 0.29378513466213768 5 290 7 102 2 231
364 6.1240355023220205 4.5881981985622025 13.951023868092074 57 52 56 1.2675363785685863 4 481 12 281 3 293
236 13.299379266841093 69.170162117764306 61.877231970712344 38 38 44 0.30767651629057285 5 105 6 118 2 236
358 17.061522377190069 5.2829207207931699 10.002767464686777 124 126 137 0.40879776243222082 4 314 12 248 3 256 11 238
237 9.0957975919432865 3.2223866430583494 8.4475369049691995 47 45 57 0.71222992275693631 5 295 6 301 2 237
238 14.889478955345224 -36.014688450147048 47.46454450084677 174 178 189 1.2987765540471956 8 127 12 90 2 238
239 14.889478955345233 -36.014688450147055 47.464544500846799 174 178 189 1.298776554047216 8 128 12 91 2 239
240 11.225617944471256 51.242038219108117 51.214411254427105 2 3 10 1.0549732801877389 6 304 7 328 9 300 2 241 10 303
833 12.350249086055657 4.100619956906657 9.3580455292482601 90 88 103 1.7697072895733945 6 761 5 691 7 755 8 852 9 721
362 8.7003326842135174 -46.915371664829571 39.694153880870005 56 48 50 1.3538563991841335 7 577 11 251 3 272
241 4.6316441887616664 1.370647745234336 12.411457761584405 14 1 3 0.93294199205630979 7 486 10 417
242 57.417390018302129 4.9072973299873643 42.364997221957083 13 11 22 1.4841660986485226 5 375 6 529 7 525 2 295
372 23.593748084696223 1.1832519593745499 6.8553212632509082 92 91 100 1.3886027586477543 4 445 10 387 11 325 12 335 3 356 9 378
360 11.842510590791619 -62.472848165285235 17.3360309575909 224 208 198 0.65506259922333698 4 329 3 265
248 31.240877757526224 63.476353745919965 43.811103289857343 51 52 63 2.1869886819975171 7 455 8 491 2 331
841 14.871147333101952 4.4768143696011284 9.0659467986836386 116 116 133 0.75065603963990135 9 493 8 603 10 490 11 440
370 26.62261960360922 2.1064507484767652 5.4591571275397461 197 189 200 1.5114545599818623 4 288 10 376 11 312 12 328 3 351
250 16.253876989206692 58.155170129287157 41.281359761232316 11 14 19 1.7187657950736646 5 416 7 563 8 610 9 501 2 344
380 17.51618990778654 5.3213779561243353 9.89652450812493 40 42 54 0.98692664635718674 4 544 12 347 3 370
252 11.238061395037104 5.6131831334938438 53.821751461385162 47 47 57 1.1502225110026083 6 457 9 415 2 353
845 25.553135537809872 2.4727205688594927 6.9708646565303729 4 6 16 1.1711003354879639 5 567 6 637 2 409 4 608 12 498 3 509 7 611 8 680 9 556 10 530 11 534
374 33.072952014510356 -47.81537519328387 31.853919899468135 57 48 56 1.7928168419815687 4 297 10 385 11 326 12 337 3 359
253 0.0055196756014620294 -34.321273946937175 6.5210363562936049 85 78 77 1.2229299447894686 5 197 2 382
254 56.647554812470617 0.030499634354944304 42.846279588513774 53 53 61 2.3465595619821977 5 554 6 626 7 603 9 543 3 210
368 45.643386879596839 13.791507557489121 47.239262018395536 64 66 80 1.6307207129675534 6 418 7 265 8 290 10 369 11 205 12 207 3 343 10 466
688 56.225396588659585 0.45145175726904879 41.655894535758009 45 45 55 1.2209811316836603 10 562 11 530 12 490
259 36.080045466392086 63.81982989326638 45.47109927024789 29 32 42 1.8873043547956772 5 498 6 553 7 549 2 419
261 31.155889653909373 55.960207427555183 41.944554950105363 2 2 8 1.8219752946780245 6 434 8 595 9 491 2 424 5 260 7 55
692 18.138503885170685 1.2579145997927352 9.9607218893606184 21 23 39 0.68899958963004282 9 603 8 730 10 575
263 22.426167638536917 51.827223018682631 41.117435004980024 6 6 12 0.93241226559267387 6 650 7 622 2 431
265 16.867006416358361 55.115381586810592 42.04118042822931 112 110 103 1.4350905604611601 5 511 6 578 8 609 9 498 2 438
696 47.577859666355899 14.343249664513653 48.436091610720105 9 11 19 3.8554234494164072 10 606 8 761
267 4.96417449005751 0.38860939728562272 10.980316104518309 50 15 23 1.1356076649924485 12 368 4 573 9 425 11 368 10 503 8 519 9 513
269 25.008375284418026 -1.0409218707264645 3.5342529790063026 13 2 4 0.94405958245846555 5 490 6 420
700 5.9186142602662661 4.0824353667747051 11.940794842662212 170 116 62 1.3187297563975224 9 654 8 789 10 625 11 579 12 560 3 630 4 745
271 25.099225783809075 56.775755276725633 45.070528326786707 3 4 12 1.2385049164118755 5 577 6 691 2 497 8 775
273 10.19055428134231 51.173858217249631 46.061746460445043 1 1 4 0.99062868296202611 5 585 7 625 2 503
640 8.5297382603780427 2.8311755194632511 8.6374892025301584 28 28 41 1.9092339583094817 8 699 7 675 9 571
275 1.264187072886281 -0.29694780334029042 11.555676922349789 25 21 25 0.80008563449935 5 534 2 522 6 602
648 17.486353776549787 53.986590040925336 42.829759025359429 3 6 12 1.2872343923492529 8 814 9 678
283 29.307306064794354 58.560441092810066 43.110863599273486 1 2 6 1.964518912860538 5 689 6 744 7 739 8 830 2 577
285 15.403637187324467 1.1402962014976432 9.8949489478342034 29 31 43 1.0206994949548724 5 660 2 580 6 721
652 47.947566648502821 -44.912045150162832 32.555311840166659 59 57 65 1.6847702709656807 8 824 7 721 9 688
287 15.62868296882532 -37.375894185152504 49.547366518139498 172 178 200 1.5042307774882895 8 784 10 580
592 26.446996857079153 2.2811817752094075 5.8421308710629827 168 181 205 1.0908922547194151 7 724 8 804 9 669 6 711 10 641
293 1.3322085260012502 2.1662037409045221 12.374636431413505 19 16 19 2.04180011664989 10 653 11 592 12 562 3 632
596 9.8137428251244749 52.187915625610884 43.493938035495162 2 1 4 1.5047158597604904 7 713 8 817 9 682 10 648 6 730
295 31.910469934361302 59.303543189788428 43.358728242003259 3 3 7 1.1053217311268282 5 703 6 759 2 612
297 13.542956465013074 62.040387753322122 42.015428261396679 7 7 15 1.2229200098389759 5 722 6 783 2 628
600 24.696644496843856 51.039828343974904 46.244889546329915 8 8 18 1.95425845612613 7 753 8 849 9 695 10 645
299 31.600538738449888 57.93720493356814 27.7647292668033 62 63 79 0.86514197300672491 5 729 6 794
301 56.998589159048059 2.6929807642449859 43.916454844010474 8 7 11 0.99313283575092226 11 12 3 3 8 269
303 56.793221058118441 0.30558564112130593 42.898483071297306 51 50 59 0.91314515875866131 11 195 12 6 3 5
305 58.897633394466375 -31.054837232120978 38.213451088734132 57 55 69 0.88218384714925779 11 190 12 5 3 8
307 57.774368293370927 -36.425181775205964 37.158880326589347 41 38 46 1.5248244946755853 11 194 12 200 3 13 4 267
309 55.863570866124974 -36.458144692669471 37.88301575150205 16 16 29 0.93994451572335125 4 28 8 6 12 16 3 18
311 44.894978832556305 -50.203395777947527 29.928056218641412 108 76 64 1.0835801253509694 11 24 12 28 3 24
313 41.739260468635422 -49.401249651624667 29.840453956046979 120 96 83 1.1243334667563607 4 43 8 288 11 207 12 210 3 29
680 24.251347462784526 7.6631902334656976 7.9601733632054028 21 22 36 0.58375530376610196 9 376 10 384 11 223 8 481 12 224
315 41.078285279110169 -49.865732525017506 30.501897220952756 118 88 78 0.39286463189701371 4 46 11 209 3 31
317 26.080147878117078 2.0220852347840736 5.2946968402952779 124 140 163 1.1277697034027354 6 40 7 28 9 37 10 31 11 31 3 39 5 40
684 52.139070862002619 13.644855266103347 38.596265727744033 2 2 7 2.2212841223857835 9 546 11 414
319 24.573605263933413 2.112567662354488 6.8778541475819672 12 15 22 1.0684315592728575 8 63 9 54 3 53
321 22.886457336941064 0.013256293444699885 7.3313418350575299 7 7 18 1.4498930988576864 11 332 12 232 3 64 10 485
752 26.367184075641031 -1.2006892983319197 4.5851664348261814 181 157 110 2.1946342019923883 11 602 10 639 12 568
323 20.481198861024787 1.9646151213522538 8.1498546712719619 26 26 39 1.9473752356942422 9 258 10 273 3 76
325 26.340395817582213 -1.3046778429619237 49.537186288394636 71 70 81 1.3341382917995952 4 94 6 81 7 292 12 61 3 87
756 5.9475537661362585 -61.979352925207628 32.141072644469247 150 127 99 0.12905171457095266 12 366 11 364
327 15.883961628240312 1.6693760773969077 8.9231782208009722 72 73 88 0.40962909552709137 4 109 12 66 3 97
329 15.22954271973329 5.1933057963617486 9.6483340709521563 107 105 119 0.88695822349919418 4 320 3 107 12 69
760 24.90417348861244 2.3068938170456361 6.8821230744290576 178 180 190 0.95311755903567752 2 42 5 248 6 266 7 275 1 43 8 303 9 247 10 258 11 219 12 220 3 235
331 19.77532477249385 -9.2437173433400783 50.311093658293899 69 65 75 0.89507223609730746 6 97 3 111 4 125
333 8.4071869722556585 2.4520444399524912 8.717905859426617 78 80 94 0.94815992357435819 11 356 12 102 3 124
337 6.9292011823864437 -53.934442727713503 32.91688100142251 164 135 105 0.84263538115878445 4 161 12 271 3 134
339 7.1703673101442833 36.90491629679952 -3.7726621271746525 98 98 105 0.49201838651546359 12 119 3 144
341 2.5979057496585209 4.9579468453694826 14.988458236562899 106 102 106 1.5842658344231622 11 142 3 163 12 294
708 47.148356601867079 -46.727221836323309 29.013999681544639 4 2 5 2.3959083648024682 9 737 8 874 10 686
343 56.314173286735347 -0.090674397573559107 43.159708844108856 56 57 69 1.8759001017514894 8 14 10 238 6 10 5 6 12 196
553 48.625500240100983 25.032069655040917 47.388118178152716 50 51 65 1.8501736902945822 9 691 5 701 12 578
345 56.345881039630918 -31.750104656054237 35.95465363159893 16 16 21 1.5735900234704219 10 7 11 198 12 10 3 215
712 10.97820736796101 4.0592011593035409 8.4403814121439797 60 56 67 0.19698376451339525 11 86 12 87 9 282
346 56.402261632436982 -36.252346302792191 37.847433948112759 10 9 20 0.98376936141820726 4 272 11 200 12 202 3 217 8 453
347 48.858096254014669 -45.725216567249213 23.502430555687859 20 2 3 0.42060471667953037 4 427 11 306 3 219
349 46.825437182459986 13.42233078770909 46.420964957508623 63 64 78 1.9545330320313312 4 277 6 256 9 235 3 224 5 33
716 -0.058005424861064969 -23.848085556850009 3.8299499525922283 96 84 84 0.093063827638908719 10 340 9 323
350 28.428138843757488 1.6594642886205611 5.2699297865048038 46 39 43 1.0780293142290012 11 27 12 209 3 227
660 49.832745220111676 15.15339912630813 41.705431535297343 3 3 5 2.1445057255059536 8 870 7 768 9 738
359 13.438291119264139 3.6861527850215965 8.5565152856662401 105 107 124 2.7682462743766827 4 325 8 341 10 288 3 261
361 11.842510590791619 -62.472848165285235 17.3360309575909 224 208 198 0.65506259922333698 4 330 3 266
664 27.942271358207879 1.4052549561236676 4.7269440824404381 29 23 24 0.8464364450734374 10 248 8 38 11 208
363 8.8706463465017436 -41.898324550153355 41.713298765630867 96 83 81 1.523935821191182 3 274 8 375
668 16.768785276346314 47.177211083188851 56.905748784124022 167 168 173 1.635293993445371 9 110 8 121 12 96
367 4.240953995161755 4.0050524844400615 11.466602925125917 49 15 16 1.1839329698771686 9 145 12 130 3 298
369 44.849577558316135 13.981672216286679 47.279908571294541 64 63 75 1.4197908099233658 12 327 3 346 7 435
736 24.528297648624502 6.6075384074378931 7.4084979445180537 8 9 20 0.28718309060402331 11 41 12 48 10 40
373 23.23602198724852 1.2949081792655317 6.8753932354033358 20 20 27 1.1712743597859014 4 447 11 327 12 338 3 357
740 4.6107323320816693 1.1943833154493837 10.763845677386417 16 6 7 1.1114808112163175 11 126 10 316 12 128
744 4.6211402467887348 0.68945772115689152 11.250828538759839 62 62 64 0.74776907322557606 12 285 10 415 11 124
379 20.807220025986407 1.6827609845325819 8.1212406170919884 88 88 101 1.1253282178879407 4 304 12 344 3 364
381 16.45728904909225 0.66089284570992068 9.5016485959846122 140 140 155 1.0932910188692571 4 318 12 428 3 371 11 438
383 14.773680486462139 4.5322770658370173 8.8330756385045124 115 116 127 0.44083676352090145 11 341 12 350 3 374
384 13.521908083122018 3.4823500133757639 8.323434827255296 22 25 40 2.9023945306028693 4 324 10 402 3 378 11 343
386 10.578946591977813 4.6609548928911062 9.2383007120849445 30 27 39 0.41157441061488292 4 465 12 355 3 381
519 16.834697158082719 45.484693816696861 55.974568585499611 161 162 170 1.5015310871321694 7 315 8 506 9 410 5 287 11 350
388 5.9798124383306135 -59.860621063070489 28.7080855830738 154 128 106 0.88407474415419962 4 356 12 362 3 390
392 3.2669304861301169 0.43809279184076183 11.104551438284648 109 104 105 1.3305779596272018 4 376 9 314 3 401
394 56.693734212445676 -34.513323781355311 36.242319358715456 7 5 12 0.83206617302936836 4 520 11 483 12 460 3 439
527 25.214294559523278 1.543931058311345 6.4561249128676117 25 8 10 0.70378065531557055 7 535 8 580 5 394 9 479
396 53.960776574881251 2.9298716319920519 42.835231230762837 76 79 97 0.80343255617627796 4 518 11 484 12 404
398 26.264585416236404 -0.9546063241021786 3.0493223754520469 209 179 163 0.0075169608420846473 4 438 3 449
609 17.06903334518675 1.4975863439948782 9.2517246236430282 14 15 29 0.59008699369433359 8 328 9 267 7 78 10 64
402 22.30943025288407 -1.2849674275231304 4.4228403282206203 107 76 68 0.45167837741320477 4 538 3 459
535 51.833370354081886 17.731493766403915 38.823664347914281 34 34 47 2.0403336503300444 8 570 5 479 7 429
404 8.8720443071117661 3.56983017620743 8.2447464673761477 81 79 89 0.8330886401637394 4 553 11 504 3 469
406 5.0742359370628067 4.4596626239273913 14.070223144924242 69 63 65 1.3887650409860113 4 575 12 369 3 481
523 57.642672440140309 2.8453872700789304 39.896860454510204 6 6 11 1.9464564514770342 6 239 7 241 8 263 5 372
408 1.6070344344383896 1.0307617406052001 13.017511256831458 64 60 66 0.75732651336296686 11 379 12 382 3 488
617 25.577863211887784 0.90275664225714192 6.437362015534025 84 59 60 1.6124284454607267 8 298 9 244 10 254 12 44 7 270 11 217
410 44.854458091090173 -47.795982323367106 31.063342495289238 32 30 37 0.76105917410076285 3 502 8 717
543 0.74545545309641992 4.3599308742903027 10.945625106252496 53 51 54 0.2467486624272012 6 702 7 684 5 600
412 25.87199497535299 0.26313185850287213 6.5325947027969224 5 3 5 1.2602281095393075 11 489 12 469 3 508 10 529
414 24.965150407353107 7.2337139854395822 6.5144633223350388 23 24 37 1.3611380512515101 12 470 3 511
416 24.367673906774801 -1.1305703932962563 7.0632330269512753 94 92 101 1.6649686197644027 4 613 12 417 3 514
561 6.7288029012836628 6.7116231548565084 -23.538197105113785 180 179 182 3.4409429084221861 11 88 6 111
418 30.542549317099994 -48.477812837532419 33.064014688028102 95 79 78 2.4966132893403259 8 723 11 495 3 516
420 18.233918770564046 1.4332388496002839 9.4307587392547063 46 46 59 1.9189644548465339 11 540 12 506 3 520
565 28.394727126918568 -0.30435726304352889 4.8587422068807395 68 67 82 3.7614618147953207 8 675 6 257 9 552 10 527
421 17.344505474323256 2.5093205286371134 9.0113378230072723 19 18 31 1.2495174634829047 4 620 11 499 3 521
724 7.1003770851217709 0.85728316469440613 8.3534334443160247 114 109 115 2.3884591435174025 10 501 11 450 9 509 12 435
423 6.4096921569106966 3.4044900039428585 11.900878376802195 13 2 1 0.9902965260854879 11 506 12 478 3 529
426 49.460127605350621 -45.145686175043849 23.618591885411053 254 243 214 1.4039953127128819 4 656 9 621 10 564 12 492 3 548
559 19.262840508785057 3.8901910257275105 9.0344414983665864 14 18 30 1.7010686297199573 7 67 8 88 9 74 6 71
430 21.826459379195214 0.82636266487698151 8.7928994715186999 19 19 31 1.2458604131050686 4 670 3 557
547 16.263879686005435 -37.452284705885283 46.795655298349409 49 48 58 1.2701287023116257 8 782 9 642 5 662
513 58.200876462195126 43.839525144042859 46.353823746592305 91 97 116 2.2256421270749311 6 406 9 459 5 227
434 7.8704685540095536 2.0180804645552639 8.6391048441052103 18 19 31 0.82265489320265273 4 683 12 514 3 566 11 548
436 1.648315782510976 1.1601917420187544 11.976322619409563 66 64 68 2.2724678587976341 4 641 12 481 3 576 11 511
517 18.797315469310728 4.2465014402751207 9.0068406247889659 12 15 29 0.9208282278234392 6 72 5 266 7 71 9 78
438 42.740099393156861 -47.975377631614201 29.242593904612125 16 11 13 1.7850728510966809 4 702 11 585 12 529 3 585 9 690 10 637
440 25.116773091910066 0.094268123785246086 6.3843089756446494 75 73 82 1.8526414016162853 11 565 12 533 3 588 8 579 9 596
444 1.4976007683838222 0.3761999919569044 11.703260645791017 37 12 16 1.8400750503353744 11 554 12 547 3 605 10 589
446 46.273127300230477 -47.02287749233161 23.874865386404306 107 79 62 2.5581469595090782 4 735 9 687 10 659 12 567 3 610
563 9.8954407976140004 52.251593606393783 47.595423914688723 2 2 5 1.1827494508309919 8 365 9 302
448 26.567769123788519 2.2903140122637322 6.0598141908947865 167 181 203 1.8627471089696785 8 805 9 670 10 640 11 587 12 551 6 712 7 725
593 23.74609616088669 0.21644371242432961 5.0987116306327618 18 15 22 2.3519949567814611 7 728 8 808 9 693 6 714 5 616
450 8.3640706838536083 4.5348542630285902 9.994722121083738 21 19 27 2.2788211236747813 12 555 3 626 10 624 11 547
597 1.3835575875406694 2.0601244244998749 12.971280525807749 19 15 19 1.0757044162193219 8 820 10 652 6 736 9 683
454 -0.47326936684816762 5.6346031145430739 6.228442133562468 55 50 56 1.9682200497954723 4 750 12 520
601 55.301380413221707 32.430957041391082 45.595644354196075 11 12 22 2.6912976133226114 8 282 10 240 7 13
458 27.145347302073958 0.33489963813895179 4.9776441189787803 8 5 5 1.6093803527018566 7 750 12 579 8 844
591 10.534227860013818 51.375567433337345 48.200471046041258 1 1 7 2.1697438466406536 8 787 9 609 10 585
460 22.704769069115361 -0.36331983829474113 5.882189986654466 12 13 23 1.5714222172668917 4 759 12 570 3 642 11 605
605 21.111647221208312 1.4042788683665712 7.1871678900704374 10 10 19 1.0450894731979083 8 77 9 65 7 56
462 0.91526177508578355 -5.1059690920295795 10.311947276463229 71 65 68 0.7635244339763062 4 767 12 561 3 644
579 21.741855443630183 7.4129854240015733 9.2664284792940546 195 171 180 0.57079630928120395 7 556 8 598 9 387 6 565 8 492 10 394
464 14.233383019319101 4.5397854492599672 8.4862728120587914 101 100 116 1.8429926235761478 4 774 9 715 10 670 11 616 12 582 3 649 8 850
673 11.200859132984686 4.8026179337058892 10.456778373255734 53 50 70 1.7302192998959551 9 408 10 493 8 350
466 4.1538172803417392 0.83535957858282073 12.694077237536954 68 58 59 0.88313416394211752 12 584 3 651
599 3.2250847340966549 2.6848566492258397 12.586746210774759 66 66 72 0.34529444610687493 10 672 11 619
468 8.0014023742457603 4.8159689645889534 10.727612212170623 28 25 31 2.5536251037506044 4 782 11 618 3 654
470 30.236409072029865 -48.396478506246659 37.462289145219742 50 46 52 1.6734930481183241 11 632 3 659 4 788
587 5.2772851138780084 1.4171757406799022 11.174382673201979 40 10 13 1.2411369628400379 7 582 8 702 9 423
472 55.865437948058336 -32.618241303878499 37.304791943107041 15 15 19 0.82510875906878778 11 15 12 15 4 26 8 265
474 26.376668731221482 -0.48497467941627015 5.5334008224089297 197 181 155 2.5664981725921887 8 293 4 49
607 19.027342240453482 1.5877528963461327 9.0746758188903964 59 61 75 1.0110501296830927 8 91 7 69 9 264 10 277
476 14.465103098446606 -36.096175702842991 46.037087961958356 180 179 194 1.0723802429303892 12 92 4 141 10 95
685 25.324589424510183 6.8574100306656609 7.8611323304519569 31 36 54 1.1094395020862227 9 558 10 474 8 584
478 9.9881897999795193 4.1312575540058241 8.6155409159648588 84 80 93 0.78512438935840856 8 126 12 94 4 150 9 114
595 23.531155075813448 8.0934727789450811 8.1869250278617791 146 115 102 1.1376968154086498 7 698 8 771 6 717
480 54.465010427266343 1.9384922686504729 43.354689658699236 78 80 97 1.1562790166342045 6 16 4 257 7 252
625 25.541680264617579 -0.35919503934957037 3.3436255205937333 202 174 127 1.7796487651114687 9 367 7 440
482 23.717555674870173 0.13268498418339891 6.7004623248376474 16 18 29 1.7550177532234552 10 482 11 322 12 333 4 294 9 377
